//X Y Z Nx Ny Nz
162424.07812500 -8030.67333984 7138.65136719 -0.120258 0.889908 0.440002
163523.21875000 -8776.99121094 8942.39648438 -0.120258 0.889908 0.440002
161323.71875000 -8766.17968750 8327.60156250 -0.096279 0.894419 0.436744
160294.53125000 -8552.70117188 7658.38769531 -0.096279 0.894419 0.436744
160484.82812500 -7615.52636719 5773.84326172 -0.096279 0.894419 0.436744
160687.87500000 -7995.27343750 6600.14160156 -0.096279 0.894419 0.436744
159858.18750000 -8762.66113281 7992.51757813 -0.096279 0.894419 0.436744
160353.39062500 -8104.56201172 6750.04394531 -0.096279 0.894419 0.436744
159479.87500000 -7704.54248047 5686.06054688 -0.128749 0.895581 0.425861
159427.46875000 -7059.50048828 4314.33740234 -0.128749 0.895581 0.425861
159460.32812500 -7229.23779297 4681.03222656 -0.128749 0.895581 0.425861
159412.32812500 -8423.08496094 7176.22607422 -0.128749 0.895581 0.425861
159431.31250000 -7381.91210938 4993.25000000 -0.128749 0.895581 0.425861
159117.50000000 -8301.49511719 6831.98046875 -0.128749 0.895581 0.425861
159037.46875000 -8210.77246094 6617.38427734 -0.116564 0.897406 0.425530
158789.10937500 -8368.13378906 6881.95019531 -0.116564 0.897406 0.425530
158509.92187500 -8401.20507813 6876.05224609 -0.116564 0.897406 0.425530
157728.00000000 -8339.52929688 6534.14746094 -0.116564 0.897406 0.425530
157078.48437500 -8886.05273438 7510.71875000 -0.116564 0.897406 0.425530
158830.89062500 -9064.66113281 8362.14941406 -0.116564 0.897406 0.425530
158416.12500000 -7393.09960938 4724.69042969 -0.116564 0.897406 0.425530
157960.14062500 -7377.54541016 4560.13769531 -0.128730 0.898282 0.420141
158560.40625000 -6790.35546875 3489.28515625 -0.128730 0.898282 0.420141
157008.87500000 -6812.99511719 3061.45996094 -0.128730 0.898282 0.420141
158375.60937500 -6801.98730469 3457.42919922 -0.128730 0.898282 0.420141
157212.98437500 -7487.35302734 4565.52001953 -0.128730 0.898282 0.420141
157307.42187500 -6904.85498047 3349.44287109 -0.128730 0.898282 0.420141
155687.73437500 -6863.13476563 2747.40283203 -0.134791 0.898131 0.418560
155007.59375000 -6700.02050781 2177.50390625 -0.134791 0.898131 0.418560
154987.95312500 -7585.48779297 4072.73730469 -0.134791 0.898131 0.418560
155842.15625000 -6721.32373047 2492.71313477 -0.134791 0.898131 0.418560
154876.23437500 -7168.19921875 3140.51977539 -0.134791 0.898131 0.418560
154908.29687500 -6708.83691406 2164.37548828 -0.134791 0.898131 0.418560
154927.17187500 -7395.16699219 3644.38891602 -0.134791 0.898131 0.418560
156584.12500000 -7288.30615234 3945.41479492 -0.131511 0.897951 0.419987
155350.20312500 -8844.18554688 6883.85302734 -0.131511 0.897951 0.419987
156819.25000000 -7086.01708984 3586.77490234 -0.131511 0.897951 0.419987
156489.84375000 -7237.48144531 3807.26049805 -0.131511 0.897951 0.419987
154658.75000000 -8703.39746094 6366.31640625 -0.131511 0.897951 0.419987
156139.21875000 -8648.13964844 6712.10693359 -0.131511 0.897951 0.419987
156869.75000000 -8626.45410156 6894.66308594 -0.131511 0.897951 0.419987
108338.35156250 -10747.06054688 -2372.01440430 -0.055288 0.984598 0.165864
115687.35156250 -10749.51757813 40.61370850 -0.055288 0.984598 0.165864
113707.55468750 -10725.71386719 -746.42395020 -0.055288 0.984598 0.165864
115394.15625000 -10568.17871094 -1129.26049805 -0.055288 0.984598 0.165864
114156.58593750 -10689.39062500 -815.06567383 -0.055288 0.984598 0.165864
111590.60937500 -10719.11523438 -1476.29846191 -0.055288 0.984598 0.165864
114722.03125000 -10614.23339844 -1075.76684570 -0.055288 0.984598 0.165864
112418.58593750 -10679.27246094 -1442.14282227 -0.055288 0.984598 0.165864
114248.21875000 -10761.48437500 -358.10955811 -0.055288 0.984598 0.165864
117058.62500000 -10437.75878906 -1358.69311523 -0.055288 0.984598 0.165864
115670.68750000 -10357.96777344 -2284.25537109 -0.055288 0.984598 0.165864
110684.75000000 -10732.29003906 -1693.84790039 -0.055288 0.984598 0.165864
112715.25000000 -10547.12597656 -2128.12670898 -0.055288 0.984598 0.165864
109618.71093750 -10689.21875000 -2296.85400391 -0.055288 0.984598 0.165864
113637.50000000 -10656.73437500 -1177.89807129 -0.055288 0.984598 0.165864
114191.35156250 -10607.59179688 -1288.27502441 -0.055288 0.984598 0.165864
115063.61718750 -10657.98242188 -705.14733887 -0.055288 0.984598 0.165864
114728.44531250 -10781.88476563 -80.55926514 -0.055288 0.984598 0.165864
114477.58593750 -10411.18164063 -2358.35546875 -0.055288 0.984598 0.165864
111725.76562500 -10839.64843750 -718.19140625 -0.055288 0.984598 0.165864
109501.46093750 -10646.12597656 -2590.38623047 -0.055288 0.984598 0.165864
109825.29687500 -10745.93847656 -1893.44921875 -0.055288 0.984598 0.165864
110945.31250000 -10759.19531250 -1449.44653320 -0.055288 0.984598 0.165864
115469.18750000 -10802.56738281 283.67535400 -0.055288 0.984598 0.165864
117279.70312500 -10375.77441406 -1653.72363281 -0.055288 0.984598 0.165864
107079.42968750 -10831.45214844 -2007.44567871 -0.027631 0.993612 0.109419
111503.21875000 -10927.14160156 -72.66491699 -0.027631 0.993612 0.109419
105171.41406250 -11112.54003906 59.81274414 -0.027631 0.993612 0.109419
105880.71093750 -10943.84960938 -1286.55737305 -0.027631 0.993612 0.109419
108848.68750000 -11044.47753906 339.43688965 -0.027631 0.993612 0.109419
110551.24218750 -11122.79785156 1457.56433105 -0.027631 0.993612 0.109419
104336.00000000 -11255.29980469 1142.18542480 -0.027631 0.993612 0.109419
109694.50000000 -11098.12109375 1027.55163574 -0.027631 0.993612 0.109419
113215.78125000 -10969.90625000 727.83636475 -0.027631 0.993612 0.109419
102180.28906250 -11312.39453125 1133.04052734 -0.027631 0.993612 0.109419
110133.46093750 -11069.40917969 875.61236572 -0.027631 0.993612 0.109419
104940.14843750 -11005.73730469 -957.69152832 -0.027631 0.993612 0.109419
106334.36718750 -10939.04199219 -1219.75048828 -0.027631 0.993612 0.109419
104829.83593750 -11009.86523438 -947.30749512 -0.027631 0.993612 0.109419
112248.71875000 -11022.34472656 965.21569824 -0.027631 0.993612 0.109419
108032.82812500 -11018.97558594 -88.08715820 -0.027631 0.993612 0.109419
107153.89843750 -11065.57812500 118.13684082 -0.027631 0.993612 0.109419
102758.21093750 -11242.96875000 648.33374023 -0.027631 0.993612 0.109419
113313.21093750 -10915.36914063 260.55651855 -0.027631 0.993612 0.109419
109176.23437500 -11143.96679688 1314.46972656 -0.027631 0.993612 0.109419
107219.69531250 -11082.12890625 283.08129883 -0.027631 0.993612 0.109419
101269.29687500 -11354.00976563 1286.59545898 -0.027631 0.993612 0.109419
102220.48437500 -11260.28906250 673.76019287 -0.027631 0.993612 0.109419
107090.61718750 -10768.93554688 -2567.48339844 -0.027631 0.993612 0.109419
101857.05468750 -11314.20117188 1070.86499023 -0.027631 0.993612 0.109419
103941.47656250 -11080.42675781 -527.69543457 -0.027631 0.993612 0.109419
109186.50000000 -11098.39746094 906.76837158 -0.027631 0.993612 0.109419
111082.30468750 -11080.20312500 1203.01208496 -0.027631 0.993612 0.109419
102420.46875000 -11286.54785156 958.66125488 -0.027631 0.993612 0.109419
106517.60937500 -11107.07031250 337.23815918 -0.027631 0.993612 0.109419
108661.58593750 -10971.46777344 -363.17138672 -0.027631 0.993612 0.109419
113069.00000000 -10913.09179688 180.80065918 -0.027631 0.993612 0.109419
114545.07812500 -10969.11132813 1043.23510742 -0.027631 0.993612 0.109419
107458.02343750 -10953.85351563 -813.76879883 -0.027631 0.993612 0.109419
107796.80468750 -10940.45019531 -852.21826172 -0.027631 0.993612 0.109419
101582.42187500 -11097.92285156 -1437.79211426 -0.042891 0.995295 0.086882
100732.23437500 -11247.89160156 -146.74682617 -0.042891 0.995295 0.086882
97034.05468750 -11234.82324219 -2075.63623047 -0.042891 0.995295 0.086882
103199.42968750 -11086.09570313 -793.29370117 -0.042891 0.995295 0.086882
103637.15625000 -10974.94335938 -1842.82543945 -0.042891 0.995295 0.086882
96972.71875000 -11240.59082031 -2039.76721191 -0.042891 0.995295 0.086882
97185.64843750 -11212.31542969 -2257.84667969 -0.042891 0.995295 0.086882
105117.27343750 -10872.16992188 -2295.43603516 -0.042891 0.995295 0.086882
99727.60937500 -11112.40527344 -2166.70751953 -0.042891 0.995295 0.086882
99429.82031250 -11192.38085938 -1403.28344727 -0.042891 0.995295 0.086882
98621.09375000 -11162.13574219 -2135.62451172 -0.042891 0.995295 0.086882
98739.10937500 -11190.84082031 -1753.32409668 -0.042891 0.995295 0.086882
101132.75781250 -11072.17089844 -1946.30883789 -0.042891 0.995295 0.086882
101717.57031250 -11158.11914063 -690.18103027 -0.042891 0.995295 0.086882
104514.36718750 -11004.53613281 -1084.90417480 -0.042891 0.995295 0.086882
101342.77343750 -11330.47558594 1083.61108398 -0.042891 0.995295 0.086882
101725.32812500 -11208.03320313 -120.49389648 -0.042891 0.995295 0.086882
96376.34375000 -11206.60644531 -2712.26416016 -0.042891 0.995295 0.086882
101083.92968750 -11081.39941406 -1865.17651367 -0.042891 0.995295 0.086882
101397.07031250 -11104.77636719 -1449.33813477 -0.042891 0.995295 0.086882
102168.80468750 -11126.24902344 -834.26062012 -0.042891 0.995295 0.086882
103608.25000000 -10918.41406250 -2497.70947266 -0.042891 0.995295 0.086882
102197.35156250 -11016.68554688 -2062.81201172 -0.042891 0.995295 0.086882
99531.96093750 -11250.01269531 -700.64453125 -0.042891 0.995295 0.086882
97553.63281250 -11212.58984375 -2077.55126953 -0.042891 0.995295 0.086882
102818.32031250 -11076.01367188 -1091.11523438 -0.042891 0.995295 0.086882
97177.51562500 -11247.83203125 -1859.04895020 -0.042891 0.995295 0.086882
59433.50000000 -11469.19921875 -556.83074951 0.042528 0.998901 0.019708
59115.70312500 -11438.69531250 -1401.79760742 0.042528 0.998901 0.019708
58825.19921875 -11415.02636719 -1966.59423828 0.042528 0.998901 0.019708
60483.57812500 -11523.01953125 -78.48239136 0.042528 0.998901 0.019708
59364.28515625 -11460.45703125 -844.25720215 0.042528 0.998901 0.019708
57987.51562500 -11364.78515625 -2708.11914063 0.042528 0.998901 0.019708
59123.95703125 -11436.85156250 -1509.72448730 0.042528 0.998901 0.019708
47678.49218750 -10962.48437500 253.15606689 0.054869 0.997319 0.048414
48824.91796875 -10963.88574219 -1001.22265625 0.054869 0.997319 0.048414
47525.23046875 -10906.28222656 -724.59570313 0.054869 0.997319 0.048414
47502.65234375 -10983.36425781 876.91644287 0.054869 0.997319 0.048414
46393.34765625 -10957.03613281 1580.02185059 0.054869 0.997319 0.048414
48128.71875000 -10990.39941406 320.13024902 0.054869 0.997319 0.048414
47228.53125000 -10966.70703125 843.08032227 0.054869 0.997319 0.048414
49421.68750000 -10993.59472656 -1061.55847168 0.054869 0.997319 0.048414
48856.69531250 -10990.92675781 -483.80621338 0.054869 0.997319 0.048414
51717.97265625 -11093.82812500 -1506.13037109 0.050156 0.997783 0.043753
48616.94140625 -11050.19531250 1104.54809570 0.050156 0.997783 0.043753
52518.52734375 -11250.75195313 1158.86242676 0.050156 0.997783 0.043753
49654.86328125 -11127.55371094 1669.27514648 0.050156 0.997783 0.043753
49006.15234375 -11033.58496094 270.60144043 0.050156 0.997783 0.043753
51023.72656250 -11085.29687500 -893.28723145 0.050156 0.997783 0.043753
50827.90625000 -11070.92187500 -994.79370117 0.050156 0.997783 0.043753
47583.92187500 -11008.45703125 1350.64648438 0.050156 0.997783 0.043753
46739.22656250 -10979.33203125 1666.58618164 0.050156 0.997783 0.043753
52675.35937500 -11252.24511719 1010.48510742 0.050156 0.997783 0.043753
50002.95703125 -11106.73242188 786.65698242 0.050156 0.997783 0.043753
50022.26953125 -11055.72656250 -405.02478027 0.050156 0.997783 0.043753
50552.93750000 -11154.28125000 1236.21899414 0.050156 0.997783 0.043753
48636.52734375 -11022.23828125 440.88598633 0.050156 0.997783 0.043753
48137.89843750 -11034.23730469 1296.54821777 0.050156 0.997783 0.043753
51568.47656250 -11168.78320313 386.15148926 0.050156 0.997783 0.043753
49890.89843750 -11080.30078125 311.25866699 0.050156 0.997783 0.043753
47375.74218750 -10892.82421875 -801.55249023 0.066561 0.996229 0.055649
47519.62890625 -10854.90136719 -1664.87915039 0.066561 0.996229 0.055649
46896.41406250 -10904.83691406 -1.37094116 0.066561 0.996229 0.055649
46258.98828125 -10870.58007813 150.57031250 0.066561 0.996229 0.055649
46634.58984375 -10839.36914063 -872.24206543 0.066561 0.996229 0.055649
13912.22265625 -428.81777954 -815.86419678 0.074501 0.035631 0.996584
12973.13769531 -78.00054932 -758.06213379 0.074501 0.035631 0.996584
11929.42480469 -643.90283203 -659.97186279 0.074501 0.035631 0.996584
15131.30957031 -320.42578125 -910.86706543 0.074501 0.035631 0.996584
12091.40234375 -17.62774658 -694.26318359 0.074501 0.035631 0.996584
14095.26464844 -122.42156982 -840.40258789 0.074501 0.035631 0.996584
11121.17773438 -1248.47302246 -577.25482178 0.065480 0.035423 0.997225
16146.10644531 -3115.61987305 -862.76049805 0.077140 0.038027 0.996295
12537.09082031 -2450.37158203 -627.36962891 0.065480 0.035423 0.997225
12936.89257813 -2629.77636719 -647.20703125 0.065480 0.035423 0.997225
10913.50878906 -1448.50866699 -557.96667480 0.051970 0.035000 0.998035
4287.71289063 -396.28021240 -283.07635498 0.044376 0.066022 0.996831
4389.55371094 -250.99157715 -297.35946655 0.044376 0.066022 0.996831
4803.88720703 -109.22247314 -325.59542847 0.044376 0.066022 0.996831
3348.88403320 -52.08374023 -263.33898926 0.044376 0.066022 0.996831
8570.99316406 -344.85479736 -480.95120239 0.044376 0.066022 0.996831
6070.50292969 -496.70526123 -357.33599854 0.044376 0.066022 0.996831
3120.54418945 -371.04815674 -231.76583862 0.044376 0.066022 0.996831
53.43139648 -1164.20678711 -69.96888733 0.038926 0.041030 0.998399
4732.73779297 -1453.34655762 -244.77770996 0.038926 0.041030 0.998399
1263.39477539 -1838.28881836 -91.08769226 0.038926 0.041030 0.998399
3368.28320313 -809.88311768 -216.27349854 0.038926 0.041030 0.998399
656.87792969 -969.36169434 -101.84033966 0.038926 0.041030 0.998399
2253.54760742 -1344.09289551 -150.39489746 0.038926 0.041030 0.998399
5416.40039063 -1183.22412109 -282.86993408 0.038926 0.041030 0.998399
558.90380859 -1773.42407227 -65.62669373 0.038926 0.041030 0.998399
8919.43652344 -1026.86401367 -467.37237549 0.051970 0.035000 0.998035
9163.21093750 -888.24639893 -485.18676758 0.051970 0.035000 0.998035
10548.35351563 -309.16076660 -579.02416992 0.051970 0.035000 0.998035
8511.62890625 -626.91491699 -459.94610596 0.051970 0.035000 0.998035
12809.41015625 -2780.97094727 -633.34893799 0.065475 0.037567 0.997147
6309.35498047 -1301.48876953 -319.44696045 0.052076 0.037197 0.997950
9353.68847656 -2049.01098633 -453.81658936 0.051970 0.035000 0.998035
2321.65185547 -1942.32031250 -129.12571716 0.040947 0.036748 0.998485
8005.68261719 -2058.81982422 -381.87594604 0.052076 0.037197 0.997950
18098.39453125 -5355.57910156 -870.38092041 0.079074 0.067937 0.994551
17984.81054688 -3880.54492188 -961.69940186 0.079074 0.067937 0.994551
15897.21972656 -3630.35156250 -813.29974365 0.079074 0.067937 0.994551
17328.33984375 -3739.78149414 -919.25555420 0.079074 0.067937 0.994551
17515.95898438 -3425.15087891 -955.52044678 0.079074 0.067937 0.994551
10883.45605469 -3532.59863281 -475.47262573 0.065745 0.042034 0.996951
13229.52929688 -3367.19873047 -637.87805176 0.065745 0.042034 0.996951
8852.44140625 -3143.18505859 -377.67193604 0.054981 0.050669 0.997201
9271.00097656 -3598.31958008 -377.66940308 0.054981 0.050669 0.997201
5671.64111328 -3194.58496094 -221.86195374 0.044108 0.059169 0.997273
5267.01123047 -3042.15600586 -213.07315063 0.044108 0.059169 0.997273
4589.47167969 -3226.21337891 -171.81382751 0.044108 0.059169 0.997273
4117.52294922 -2991.63452148 -164.99421692 0.044108 0.059169 0.997273
2096.89892578 -2165.77954102 -111.93725586 0.040782 0.032417 0.998642
4846.28027344 -2542.62426758 -212.63079834 0.040782 0.032417 0.998642
4707.30761719 -2152.02294922 -219.41452026 0.040782 0.032417 0.998642
6180.11230469 -3036.33764648 -251.54626465 0.040782 0.032417 0.998642
5517.28564453 -2735.15649414 -233.99221802 0.040782 0.032417 0.998642
3191.15991211 -2031.47509766 -161.09837341 0.040782 0.032417 0.998642
7642.94873047 -2584.39770508 -336.95034790 0.054751 0.048310 0.997331
7999.00244141 -3171.09814453 -328.50555420 0.054751 0.048310 0.997331
6849.06640625 -1898.55981445 -325.98202515 0.054751 0.048310 0.997331
7981.55029297 -2402.86572266 -364.32705688 0.054751 0.048310 0.997331
1271.64599609 -3295.42993164 -20.16616821 0.043930 0.054645 0.997539
15475.13671875 -4527.49853516 -728.79980469 0.066295 0.048906 0.996601
13017.23242188 -4564.27734375 -563.78723145 0.066295 0.048906 0.996601
15243.36328125 -4525.64843750 -713.50140381 0.066295 0.048906 0.996601
17160.65429688 -5506.66259766 -792.50903320 0.066295 0.048906 0.996601
15830.20410156 -4722.08935547 -742.79559326 0.066295 0.048906 0.996601
14707.01855469 -4337.46435547 -687.15368652 0.066295 0.048906 0.996601
13978.95117188 -3679.75976563 -671.19158936 0.066295 0.048906 0.996601
13081.95214844 -3876.03417969 -601.96868896 0.066295 0.048906 0.996601
6765.85351563 -3592.92529297 -244.79730225 0.046186 0.113775 0.992432
4468.42919922 -3534.96069336 -143.81698608 0.046186 0.113775 0.992432
6603.36767578 -3567.21020508 -240.15223694 0.046186 0.113775 0.992432
9898.97460938 -4034.45263672 -386.70935059 0.058068 0.069024 0.995924
34181.52343750 -9913.95703125 65.82226563 0.097468 0.993724 0.054896
34012.39062500 -9873.24414063 -375.25708008 0.097468 0.993724 0.054896
32942.33203125 -9801.53027344 254.54980469 0.097468 0.993724 0.054896
33596.57812500 -9829.15332031 -429.09765625 0.097468 0.993724 0.054896
34026.76171875 -9956.62890625 1133.05700684 0.097468 0.993724 0.054896
33741.67578125 -9856.15917969 -196.44970703 0.097468 0.993724 0.054896
31329.24023438 -9624.76757813 214.20239258 0.107287 0.992687 0.055337
31983.47460938 -9667.27246094 -288.37707520 0.107287 0.992687 0.055337
32132.95312500 -9814.93359375 2029.03161621 0.107287 0.992687 0.055337
31991.79492188 -9771.56347656 1534.48828125 0.107287 0.992687 0.055337
32192.02343750 -9859.84082031 2707.76318359 0.107287 0.992687 0.055337
35177.26562500 -10024.55859375 292.26782227 0.097047 0.993898 0.052428
34548.17578125 -10041.91210938 1786.47741699 0.097047 0.993898 0.052428
33274.30468750 -9955.25683594 2496.21582031 0.097047 0.993898 0.052428
34613.95312500 -10032.93847656 1494.09729004 0.097047 0.993898 0.052428
34986.55859375 -10080.92285156 1716.95458984 0.097047 0.993898 0.052428
34406.84765625 -10028.20507813 1787.37854004 0.097047 0.993898 0.052428
34585.64843750 -10050.41406250 1878.80541992 0.097047 0.993898 0.052428
16908.33007813 -5702.60449219 -750.83941650 0.098347 0.200429 0.974759
15845.20898438 -5850.98486328 -613.18298340 0.098347 0.200429 0.974759
14695.08886719 -5790.41357422 -509.69924927 0.098347 0.200429 0.974759
15424.33007813 -5830.99902344 -574.86572266 0.098347 0.200429 0.974759
15397.67285156 -5806.83447266 -577.14477539 0.098347 0.200429 0.974759
29985.20703125 -9607.88574219 2534.18994141 0.109519 0.992444 0.055324
30505.80273438 -9657.06152344 2390.71679688 0.109519 0.992444 0.055324
30708.35937500 -9654.15332031 1940.69482422 0.109519 0.992444 0.055324
30203.89062500 -9632.02636719 2536.23339844 0.109519 0.992444 0.055324
29211.27343750 -9506.56542969 2242.87890625 0.109519 0.992444 0.055324
30388.55859375 -9661.66503906 2703.43457031 0.109519 0.992444 0.055324
30216.62695313 -9536.89746094 809.83935547 0.109519 0.992444 0.055324
11041.93261719 -7080.96435547 9508.23242188 0.152980 0.988229 -0.001117
13435.27636719 -7452.87597656 8907.63964844 0.152980 0.988229 -0.001117
11752.94824219 -7191.38183594 9472.39355469 0.152980 0.988229 -0.001117
14093.26074219 -7555.30371094 8373.76269531 0.152980 0.988229 -0.001117
13216.38867188 -7418.43701172 9826.86132813 0.152980 0.988229 -0.001117
14290.98339844 -7585.68066406 9031.89648438 0.152980 0.988229 -0.001117
12445.33203125 -7298.65478516 9948.24804688 0.152980 0.988229 -0.001117
11817.43164063 -7203.29980469 7538.72314453 0.152643 0.988281 -0.001114
13223.68359375 -7421.10498047 7682.08496094 0.152643 0.988281 -0.001114
13883.34960938 -7523.42773438 7411.53710938 0.152643 0.988281 -0.001114
9507.01562500 -6843.24023438 9072.29589844 0.152980 0.988229 -0.001117
10384.47265625 -6981.12548828 7810.53466797 0.152980 0.988229 -0.001117
8344.98632813 -6664.86621094 7863.91503906 0.152980 0.988229 -0.001117
7948.65136719 -6602.66162109 8382.04980469 0.152980 0.988229 -0.001117
9034.19726563 -6769.36816406 9461.42773438 0.152980 0.988229 -0.001117
12972.50683594 -7381.87255859 8133.61230469 0.152980 0.988229 -0.001117
14522.52539063 -7622.05273438 8214.48046875 0.152980 0.988229 -0.001117
10172.81835938 -6947.76269531 8184.98095703 0.152980 0.988229 -0.001117
12607.27246094 -7324.56445313 8600.76171875 0.152980 0.988229 -0.001117
3577.46923828 -5886.47412109 9168.13476563 0.162760 0.986665 0.001122
6097.37109375 -6300.81201172 9649.18652344 0.162760 0.986665 0.001122
4572.03955078 -6049.37646484 8856.00585938 0.162760 0.986665 0.001122
2717.72753906 -5745.78466797 9540.37500000 0.162760 0.986665 0.001122
2305.90112305 -5678.60156250 9884.75488281 0.162760 0.986665 0.001122
7045.12060547 -6455.08496094 8587.76171875 0.162760 0.986665 0.001122
6301.60205078 -6333.00927734 8587.60937500 0.162760 0.986665 0.001122
7010.55322266 -6449.14697266 8378.86328125 0.162760 0.986665 0.001122
7165.56152344 -6476.39306641 9807.56542969 0.162760 0.986665 0.001122
6474.34814453 -6362.43261719 9431.23339844 0.162760 0.986665 0.001122
3009.36474609 -5795.41259766 8748.03027344 0.158732 0.987290 -0.007880
4302.72509766 -6007.64599609 8308.26367188 0.158732 0.987290 -0.007880
1680.21716309 -5577.90966797 9113.37988281 0.158732 0.987290 -0.007880
3752.85034180 -5916.62597656 8608.35742188 0.158732 0.987290 -0.007880
2232.71264648 -5668.31445313 8962.43652344 0.158732 0.987290 -0.007880
2088.96337891 -5646.66357422 7990.08203125 0.162760 0.986665 0.001122
982.11767578 -5463.06591797 8697.98730469 0.162760 0.986665 0.001122
685.31036377 -5413.83349609 6638.75634766 0.162760 0.986665 0.001122
518.06103516 -5386.09082031 8199.07324219 0.162760 0.986665 0.001122
2027.33886719 -5636.44140625 7459.72998047 0.162760 0.986665 0.001122
3019.28637695 -5800.97998047 7709.14404297 0.162760 0.986665 0.001122
1042.05908203 -5473.00878906 8673.49316406 0.162760 0.986665 0.001122
2002.58850098 -5632.33593750 6967.24853516 0.162760 0.986665 0.001122
313.95654297 -5352.23535156 9333.59667969 0.162760 0.986665 0.001122
184072.60937500 -179.07989502 -5154.23828125 -0.308959 0.401186 0.862319
185545.89062500 -356.63949585 -4400.98291016 -0.466514 0.576872 0.670510
186107.65625000 -406.94720459 -3928.32275391 -0.500639 0.691519 0.520732
185227.35937500 -1074.02990723 -3221.36206055 -0.342195 0.937430 0.064243
185338.46875000 -1037.34985352 -3171.00683594 -0.338204 0.938285 0.072378
185386.10937500 -985.36029053 -2080.46508789 -0.292396 0.952560 -0.084470
186641.48437500 -299.61581421 -1171.68469238 -0.312722 0.821877 -0.476154
182329.01562500 -1380.15246582 -4931.79833984 -0.216494 0.739819 0.637023
181557.12500000 -1549.02148438 -4985.29345703 -0.168962 0.653015 0.738257
182571.28125000 -1709.98242188 -4054.94018555 -0.217993 0.940007 0.262424
181537.62500000 -1805.14025879 -4463.25976563 -0.257519 0.912229 0.318625
183416.40625000 -1586.52819824 -3501.52319336 -0.222977 0.973543 0.049957
183153.45312500 -1577.46240234 -2665.40283203 -0.147183 0.984808 -0.092139
182722.21875000 -1737.06750488 -3311.97558594 -0.175815 0.976334 -0.125938
183614.35937500 -1237.13122559 -1676.65698242 -0.154797 0.907477 -0.390542
182941.75000000 -1442.99450684 -1929.03356934 -0.233087 0.930937 -0.281117
181676.95312500 -1925.98718262 -3183.84130859 -0.216898 0.971655 -0.094031
181408.60937500 -1921.01171875 -2719.24316406 -0.134696 0.950877 -0.278728
183021.37500000 -798.70788574 -936.02142334 -0.060301 0.848419 -0.525879
182650.20312500 -1301.16223145 -1621.82666016 -0.043476 0.812015 -0.582015
182437.96875000 -924.12469482 -1090.38403320 -0.038154 0.750363 -0.659924
180762.57812500 -2115.51684570 -3535.33886719 -0.137631 0.988861 -0.056672
183460.96875000 -274.81439209 244.32418823 -0.341011 0.693443 -0.634704
183201.92187500 -397.66607666 138.63798523 -0.113653 0.981323 -0.155203
179221.85937500 -2242.21166992 -2808.00830078 -0.116178 0.944112 -0.308472
182976.87500000 -456.44488525 -10.77719116 -0.203768 0.957579 -0.203768
182781.09375000 -533.10839844 -231.60743713 -0.166159 0.972853 -0.161085
182337.09375000 -337.22952271 1521.78686523 -0.625619 0.779575 0.029392
179123.68750000 -1759.30566406 -1801.09326172 -0.110572 0.759264 -0.641320
182641.31250000 -423.47149658 556.86810303 -0.304905 0.934208 -0.185171
182050.59375000 -552.46215820 990.81372070 -0.400821 0.914831 -0.049270
182318.93750000 -565.78729248 172.22109985 -0.269265 0.953703 -0.133969
180828.21875000 -780.35864258 -159.08886719 -0.070629 0.996408 -0.046724
182361.26562500 -355.81414795 2021.42016602 -0.678839 0.706673 0.199477
182809.51562500 -213.72320557 3059.92065430 -0.690550 0.684258 0.234378
183300.03125000 -236.45022583 4301.11328125 -0.699997 0.631784 0.332945
177536.29687500 -2076.70117188 -5094.65771484 -0.054735 0.837859 0.543135
182166.34375000 -673.67388916 2631.75610352 -0.492717 0.849150 0.190198
177530.60937500 -2126.16088867 -5003.49121094 -0.069462 0.905726 0.418132
177006.53125000 -2461.50756836 -4210.56884766 -0.062577 0.973016 0.222088
180169.39062500 -944.72442627 417.91427612 -0.172642 0.970633 0.167527
187369.43750000 -463.64868164 9718.38769531 -0.607318 0.573484 0.549800
186912.23437500 -928.93371582 9704.76660156 -0.608767 0.595277 0.524450
187521.73437500 -868.39599609 10345.73925781 -0.602200 0.598826 0.527979
186705.06250000 -1112.87658691 9737.69433594 -0.497042 0.741434 0.450805
185779.96875000 -1419.01306152 9300.69140625 -0.467140 0.744453 0.477044
186878.20312500 -1205.61523438 10088.72460938 -0.494850 0.748029 0.442241
186844.90625000 -1187.98535156 10020.93847656 -0.501947 0.748806 0.432826
188133.71875000 -657.03552246 10820.77929688 -0.604262 0.617727 0.503271
187547.03125000 -1153.05444336 10770.49804688 -0.490661 0.771039 0.405896
188334.67187500 -745.23199463 11181.31152344 -0.610437 0.647231 0.456573
176984.45312500 -2798.45263672 3596.86425781 -0.256600 0.894392 0.366360
177521.10937500 -2426.60058594 3064.47973633 -0.256600 0.894392 0.366360
178105.32812500 -2073.00854492 2575.13330078 -0.213931 0.914593 0.343152
182706.39062500 -2512.83740234 8417.24609375 -0.377352 0.869284 0.319298
186468.79687500 -1352.57556152 9887.50097656 -0.392597 0.843066 0.367570
185673.34375000 -1670.33801270 9758.93945313 -0.397545 0.864161 0.308519
184432.82812500 -1925.30297852 8874.79589844 -0.397545 0.864161 0.308519
186453.15625000 -1627.63537598 10515.93945313 -0.393281 0.850295 0.349756
185431.25000000 -2353.44848633 11165.55859375 -0.391424 0.855563 0.338821
184190.39062500 -2548.81494141 10229.37500000 -0.391424 0.855563 0.338821
183165.09375000 -2611.69824219 9208.15625000 -0.372586 0.866301 0.332721
189669.14062500 -682.58050537 13095.01562500 -0.614132 0.741084 0.271361
189237.93750000 -1135.52575684 13373.05175781 -0.633648 0.750252 0.188714
188171.96875000 -1601.83166504 12689.25878906 -0.477487 0.835989 0.270422
187145.93750000 -1914.35510254 12059.11621094 -0.377417 0.887602 0.264043
187445.20312500 -1869.37414551 12394.27246094 -0.419669 0.873935 0.245183
189227.67187500 -1200.46704102 13878.18847656 -0.597829 0.798539 0.070249
190086.65625000 -545.97015381 14217.30468750 -0.618143 0.781042 -0.088722
185904.21875000 -2562.79394531 12602.15722656 -0.368173 0.915496 0.162222
186584.70312500 -2356.55273438 12995.48828125 -0.365189 0.919268 0.146915
189662.76562500 -694.26708984 14959.47363281 -0.531839 0.751121 -0.391107
188037.56250000 -1833.64782715 13943.46582031 -0.387180 0.921671 -0.024769
187060.98437500 -2205.70751953 13256.13574219 -0.362203 0.927723 0.090214
187550.89062500 -2045.09985352 13577.40820313 -0.407192 0.908984 0.089116
188372.31250000 -1588.25451660 14732.62597656 -0.416984 0.885538 -0.204808
186095.65625000 -2597.06982422 13736.36914063 -0.354578 0.935026 -0.001262
188020.23437500 -1640.81127930 15063.16699219 -0.404299 0.844502 -0.351225
187557.60937500 -1924.43713379 14799.07910156 -0.361203 0.902275 -0.235440
186112.62500000 -2578.48681641 14055.95996094 -0.338506 0.934602 -0.109239
187865.50000000 -1820.16125488 14712.57714844 -0.385369 0.912274 -0.138733
174464.37500000 -3123.22998047 2858.21801758 -0.249673 0.883572 0.396187
174865.06250000 -3139.47021484 3148.55200195 -0.249673 0.883572 0.396187
174781.43750000 -2222.70703125 1048.06030273 -0.249673 0.883572 0.396187
174903.26562500 -3916.55639648 4908.28906250 -0.249673 0.883572 0.396187
176064.59375000 -3715.39355469 5195.35498047 -0.249673 0.883572 0.396187
174185.40625000 -3227.83740234 2914.97314453 -0.249673 0.883572 0.396187
174719.26562500 -3500.96215820 3863.45800781 -0.249673 0.883572 0.396187
175032.93750000 -3336.34594727 3694.68457031 -0.249673 0.883572 0.396187
187846.92187500 -1486.55554199 15617.75683594 -0.411198 0.775263 -0.479461
186816.17187500 -1927.18530273 15648.53613281 -0.377462 0.844198 -0.380594
186929.25000000 -2070.35595703 15208.89257813 -0.357656 0.907896 -0.218648
185643.17187500 -2646.82055664 14875.12792969 -0.373780 0.918471 -0.129225
187643.70312500 -1140.22314453 16201.06152344 -0.389922 0.517177 -0.761898
187966.71875000 -916.25982666 16184.78710938 -0.444618 0.577837 -0.684412
187569.76562500 -1383.12854004 15985.71582031 -0.387157 0.710063 -0.588150
187777.71875000 -1311.44873047 15932.88769531 -0.408215 0.745935 -0.526253
187064.92187500 -858.29638672 16654.37304688 -0.353276 0.517815 -0.779143
185839.75000000 -2362.44775391 15655.17675781 -0.400427 0.840113 -0.365881
186004.89062500 -1882.50488281 16378.80273438 -0.381484 0.774331 -0.504857
186099.62500000 -1347.81372070 16863.20703125 -0.386821 0.600808 -0.699571
177373.45312500 -2962.02612305 4272.68750000 -0.265455 0.894243 0.360366
176355.85937500 -3654.13037109 5249.98291016 -0.265455 0.894243 0.360366
177429.68750000 -4025.55957031 6966.45849609 -0.265455 0.894243 0.360366
177521.96875000 -3539.17456055 5821.34716797 -0.265455 0.894243 0.360366
179229.18750000 -2561.81835938 4789.76855469 -0.305517 0.886450 0.347657
178479.67187500 -2689.01611328 4458.76171875 -0.305517 0.886450 0.347657
177850.31250000 -3531.10937500 6053.45019531 -0.305517 0.886450 0.347657
178168.45312500 -2790.16552734 4444.40234375 -0.305517 0.886450 0.347657
177781.65625000 -3705.14355469 6436.67822266 -0.305517 0.886450 0.347657
180600.53125000 -4306.96484375 11550.69238281 -0.378018 0.895771 0.233871
186094.71875000 -1205.26794434 16964.01953125 -0.378085 0.390636 -0.839318
176981.28125000 -5696.19531250 11086.29882813 -0.350002 0.887773 0.298929
177554.78125000 -4970.02880859 9611.96582031 -0.350002 0.887773 0.298929
177171.53125000 -5365.27099609 10331.38085938 -0.350002 0.887773 0.298929
177791.62500000 -4739.67871094 9209.84179688 -0.364732 0.871388 0.328106
178287.79687500 -4618.19628906 9437.48437500 -0.364732 0.871388 0.328106
177064.71875000 -5167.38232422 9633.23144531 -0.307420 0.898498 0.313360
177109.12500000 -4117.36816406 6954.08105469 -0.291573 0.880762 0.373153
177164.00000000 -4393.48535156 7651.98974609 -0.291573 0.880762 0.373153
176707.00000000 -4251.84716797 6956.34716797 -0.291573 0.880762 0.373153
177300.75000000 -4465.26757813 7949.94970703 -0.321761 0.883711 0.339889
178962.25000000 -4802.56005859 11046.67480469 -0.408560 0.883974 0.227308
178424.57812500 -5326.03027344 12115.19238281 -0.408560 0.883974 0.227308
178011.45312500 -5167.96923828 10753.95312500 -0.408560 0.883974 0.227308
178819.78125000 -4603.74853516 10015.18457031 -0.408560 0.883974 0.227308
178316.53125000 -5048.84130859 10840.51171875 -0.408560 0.883974 0.227308
177093.96875000 -6011.25195313 12377.92968750 -0.401870 0.892883 0.203127
178534.25000000 -5582.71777344 13333.44921875 -0.401870 0.892883 0.203127
177149.82812500 -6104.15722656 12893.30273438 -0.401870 0.892883 0.203127
178051.31250000 -5655.79101563 12714.80371094 -0.423730 0.870079 0.251825
174183.04687500 -4274.17285156 5250.24560547 -0.249673 0.883572 0.396187
174357.23437500 -4516.95361328 5902.60205078 -0.249673 0.883572 0.396187
175374.25000000 -4109.24902344 5637.04492188 -0.249673 0.883572 0.396187
174877.06250000 -4075.11791992 5245.74462891 -0.249673 0.883572 0.396187
175907.20312500 -4361.84277344 6575.81103516 -0.301769 0.878012 0.371525
176126.62500000 -4082.62890625 6093.96777344 -0.301769 0.878012 0.371525
177952.31250000 -5960.11328125 13849.81542969 -0.418570 0.895712 0.150000
178135.59375000 -5892.33300781 13971.42480469 -0.421549 0.898082 0.125478
178781.87500000 -5606.93945313 14111.27636719 -0.422159 0.899016 0.116409
181539.92187500 -3668.30468750 17571.49609375 -0.475873 0.745919 -0.465993
181798.06250000 -3944.59277344 16676.74609375 -0.476388 0.851449 -0.219290
180404.87500000 -4840.13818359 15726.75000000 -0.492925 0.867825 0.062483
178536.48437500 -5766.75732422 14558.81347656 -0.421479 0.902379 0.089823
176378.28125000 -5517.07958984 9966.58984375 -0.303914 0.899882 0.312809
176505.15625000 -5777.61572266 10839.38085938 -0.303914 0.899882 0.312809
176070.37500000 -5257.91015625 8921.76171875 -0.303914 0.899882 0.312809
175609.29687500 -5062.08886719 7989.28808594 -0.301769 0.878012 0.371525
180992.40625000 -4293.78320313 17098.14453125 -0.508800 0.833824 -0.214151
180422.01562500 -4631.23535156 17116.60742188 -0.486830 0.817686 -0.307223
180213.79687500 -4330.09960938 17967.44140625 -0.512826 0.718620 -0.469675
179883.59375000 -5002.89453125 16868.23632813 -0.435465 0.897030 -0.075554
179378.57812500 -5358.95068359 15553.27734375 -0.435465 0.897030 -0.075554
179450.57812500 -5303.44824219 15796.78906250 -0.435465 0.897030 -0.075554
180574.53125000 -4667.06054688 16611.84765625 -0.486634 0.851985 -0.193156
180178.18750000 -4723.16894531 17222.13476563 -0.458842 0.817659 -0.347704
179165.50000000 -5454.12109375 15661.91113281 -0.564423 0.825348 -0.015106
178387.32812500 -5894.03271484 15715.41503906 -0.439324 0.898320 0.003934
178376.50000000 -5848.24804688 14631.97851563 -0.400821 0.914831 0.049270
177453.40625000 -6227.08154297 14160.34863281 -0.400821 0.914831 0.049270
175260.40625000 -5949.47607422 10035.13574219 -0.341036 0.880632 0.328911
174893.57812500 -6355.95996094 10739.61914063 -0.341036 0.880632 0.328911
174936.65625000 -6418.50195313 10950.92089844 -0.341036 0.880632 0.328911
175177.31250000 -6177.01171875 10555.88671875 -0.341036 0.880632 0.328911
175208.04687500 -5792.06494141 9561.29296875 -0.341036 0.880632 0.328911
174808.01562500 -6241.16113281 10345.08203125 -0.341036 0.880632 0.328911
175482.34375000 -6612.68554688 12205.11035156 -0.343901 0.905851 0.247316
175389.20312500 -6737.52246094 12531.86132813 -0.343901 0.905851 0.247316
174912.84375000 -6810.14355469 12137.11914063 -0.343901 0.905851 0.247316
174740.67187500 -6855.53369141 12064.34765625 -0.343901 0.905851 0.247316
175961.71875000 -6437.64550781 12230.11035156 -0.343901 0.905851 0.247316
176663.98437500 -6390.90185547 17614.64453125 -0.453190 0.869233 -0.197620
174576.70312500 -7464.04052734 17696.04882813 -0.453190 0.869233 -0.197620
174920.06250000 -7265.76025391 17777.51562500 -0.453190 0.869233 -0.197620
176215.23437500 -6629.01318359 17599.91992188 -0.453190 0.869233 -0.197620
176730.35937500 -6272.63525391 17979.04882813 -0.453190 0.869233 -0.197620
174292.92187500 -7646.04687500 17549.67578125 -0.453190 0.869233 -0.197620
167086.34375000 -5542.47509766 4052.92651367 -0.198299 0.860291 0.469656
167144.70312500 -5796.52832031 4544.30615234 -0.198299 0.860291 0.469656
167355.29687500 -5322.93554688 3763.55468750 -0.198299 0.860291 0.469656
167193.17187500 -4683.81835938 2520.93115234 -0.198299 0.860291 0.469656
173812.54687500 -7290.56494141 12447.68750000 -0.300132 0.925999 0.229011
173987.28125000 -7147.97021484 12100.66992188 -0.300132 0.925999 0.229011
174769.71875000 -7367.44384766 14052.91406250 -0.373533 0.914804 0.153642
175085.96875000 -7385.64404297 16043.58007813 -0.444234 0.895178 0.036237
174973.78125000 -7388.15820313 14755.30175781 -0.444234 0.895178 0.036237
173608.26562500 -8063.04736328 17062.96875000 -0.417840 0.908175 -0.025044
173652.04687500 -8051.61474609 16753.46875000 -0.417840 0.908175 -0.025044
174136.79687500 -7767.60546875 14956.42773438 -0.396168 0.915377 0.071662
166559.51562500 -5230.82177734 3266.27880859 -0.169599 0.862743 0.476352
166980.26562500 -3915.21240234 1036.21276855 -0.169599 0.862743 0.476352
166883.20312500 -3127.81762695 -1003.13403320 -0.158567 0.919129 0.360635
166139.85937500 -3337.94213867 -794.11413574 -0.158567 0.919129 0.360635
167050.92187500 -3070.84130859 -1072.28442383 -0.180194 0.917995 0.353293
165903.76562500 -5703.88964844 3884.41821289 -0.179081 0.859886 0.478043
166152.60937500 -5782.85449219 4120.63037109 -0.179081 0.859886 0.478043
166259.95312500 -4416.58105469 1687.24560547 -0.166075 0.862710 0.477650
166298.09375000 -5279.21533203 3260.81494141 -0.166075 0.862710 0.477650
165998.56250000 -3935.09814453 652.91253662 -0.171416 0.916579 0.361248
165495.20312500 -3323.98852539 -1108.16125488 -0.152933 0.918999 0.363390
164679.54687500 -5220.37548828 2585.82519531 -0.166262 0.860738 0.481131
164979.73437500 -5296.37060547 2825.36181641 -0.166262 0.860738 0.481131
165669.09375000 -4240.48486328 1162.66125488 -0.159898 0.861105 0.482629
165344.92187500 -5441.14501953 3205.60375977 -0.159898 0.861105 0.482629
165131.67187500 -3990.26293945 402.37475586 -0.165394 0.914613 0.368955
164851.39062500 -4204.82128906 811.61431885 -0.165394 0.914613 0.368955
164775.29687500 -3572.52514648 -808.29455566 -0.187046 0.912385 0.364097
169204.20312500 -8414.80859375 10987.06152344 -0.249833 0.894373 0.371054
169258.62500000 -8227.68359375 10573.33984375 -0.249833 0.894373 0.371054
164500.78125000 -5213.16699219 2511.66625977 -0.159898 0.861105 0.482629
164254.56250000 -5443.58642578 2841.74267578 -0.159898 0.861105 0.482629
164350.09375000 -5424.06738281 2838.33300781 -0.159898 0.861105 0.482629
163989.67187500 -4697.14062500 1423.07104492 -0.159898 0.861105 0.482629
164534.59375000 -4231.16064453 745.65979004 -0.140268 0.923544 0.356919
163652.34375000 -3683.52294922 -1067.93371582 -0.185260 0.920643 0.343650
167451.26562500 -9022.45410156 11332.02734375 -0.217918 0.899458 0.378796
167618.93750000 -9201.94726563 11856.52832031 -0.217918 0.899458 0.378796
167872.89062500 -8330.04980469 9927.17968750 -0.217918 0.899458 0.378796
168222.71875000 -9121.46777344 12051.35156250 -0.240213 0.897482 0.369898
167765.32812500 -9160.87011719 11848.30957031 -0.240213 0.897482 0.369898
167960.89062500 -8717.02246094 10900.87402344 -0.240213 0.897482 0.369898
168385.73437500 -9558.28906250 13491.42187500 -0.254815 0.919926 0.298004
168268.17187500 -9318.09375000 12667.04882813 -0.248768 0.918860 0.306287
168207.21875000 -9444.24511719 12996.96679688 -0.248768 0.918860 0.306287
168527.62500000 -9667.51660156 14058.16406250 -0.261573 0.935787 0.236395
167672.62500000 -9423.99023438 12507.45312500 -0.228814 0.925206 0.302717
167120.34375000 -9831.87402344 13356.14746094 -0.198288 0.929564 0.310792
167064.23437500 -9739.78710938 13045.48730469 -0.198288 0.929564 0.310792
165579.89062500 -8562.74218750 9264.38476563 -0.185430 0.907026 0.378047
165474.42187500 -9019.90136719 10309.59277344 -0.185430 0.907026 0.378047
165597.98437500 -9410.56445313 11307.33593750 -0.185430 0.907026 0.378047
166569.60937500 -8591.42578125 9819.89843750 -0.194664 0.906989 0.373466
167271.18750000 -9085.10937500 11385.99804688 -0.194664 0.906989 0.373466
166705.54687500 -9420.83691406 11905.14941406 -0.194664 0.906989 0.373466
167261.60937500 -9293.11718750 11886.09277344 -0.194664 0.906989 0.373466
166127.60937500 -10079.40527344 13462.68457031 -0.198288 0.929564 0.310792
166280.92187500 -10087.68066406 13595.21875000 -0.200909 0.947143 0.250111
166303.65625000 -10567.90234375 15837.22460938 -0.241689 0.962880 0.120198
165999.85937500 -10911.66406250 17969.57617188 -0.241689 0.962880 0.120198
166614.53125000 -10509.33691406 15990.84765625 -0.241689 0.962880 0.120198
166271.96875000 -10698.81054688 16816.80664063 -0.241689 0.962880 0.120198
166918.26562500 -10510.71582031 16607.72851563 -0.241689 0.962880 0.120198
165186.17187500 -9102.71289063 10372.39941406 -0.159963 0.913064 0.375135
165026.34375000 -9748.76660156 11870.42871094 -0.159963 0.913064 0.375135
164142.50000000 -9079.77148438 9884.31445313 -0.153876 0.913373 0.376925
164827.31250000 -8802.94921875 9495.50097656 -0.153876 0.913373 0.376925
164122.45312500 -8923.65429688 9498.84960938 -0.153876 0.913373 0.376925
164642.62500000 -10006.55468750 12403.97753906 -0.161282 0.935987 0.312915
165527.40625000 -10007.43164063 12875.24609375 -0.170050 0.935966 0.308302
164321.29687500 -9764.32714844 11616.91699219 -0.126169 0.919229 0.372960
164083.12500000 -9548.80273438 11003.88476563 -0.126169 0.919229 0.372960
164177.79687500 -9570.11621094 11088.83203125 -0.126169 0.919229 0.372960
162964.92187500 -9560.64257813 10653.83886719 -0.120274 0.919334 0.374646
163386.09375000 -8980.25195313 9367.12304688 -0.120274 0.919334 0.374646
163223.26562500 -8990.20410156 9339.17968750 -0.120274 0.919334 0.374646
162865.31250000 -9040.12500000 9346.46093750 -0.120274 0.919334 0.374646
164003.50000000 -10153.90625000 12561.41601563 -0.131186 0.939942 0.315117
163597.48437500 -10097.78222656 12232.48828125 -0.128416 0.939468 0.317662
163608.03125000 -10745.39550781 14307.54589844 -0.130464 0.955415 0.264881
163617.14062500 -11331.22070313 17351.02148438 -0.181122 0.969836 0.163138
163551.68750000 -11356.18750000 17426.37695313 -0.181122 0.969836 0.163138
163588.50000000 -11096.34082031 15931.78710938 -0.181122 0.969836 0.163138
164149.42187500 -11057.32519531 16319.72949219 -0.181122 0.969836 0.163138
160888.64062500 -9694.04394531 10441.36816406 -0.084785 0.927253 0.364710
159595.89062500 -9337.56640625 9233.80761719 -0.084785 0.927253 0.364710
160173.67187500 -9790.51953125 10520.62597656 -0.084785 0.927253 0.364710
160187.18750000 -9907.76562500 10822.09277344 -0.084785 0.927253 0.364710
161769.00000000 -9772.41601563 10903.73437500 -0.040177 0.934450 0.353821
161914.71875000 -9958.01464844 11411.54101563 -0.040177 0.934450 0.353821
162092.79687500 -10251.44335938 12208.29882813 -0.040177 0.934450 0.353821
161819.42187500 -9805.74023438 10997.73339844 -0.040177 0.934450 0.353821
162158.92187500 -10390.11523438 12599.59570313 -0.074644 0.944187 0.320840
161396.29687500 -9608.10351563 10396.97656250 -0.150845 0.928595 0.339055
161216.01562500 -10443.61621094 12611.45214844 -0.150845 0.928595 0.339055
161846.25000000 -10764.88281250 13673.96386719 -0.075182 0.959521 0.271418
161978.76562500 -10847.96972656 14009.16894531 -0.104846 0.959147 0.262762
161987.60937500 -11049.44140625 14755.23046875 -0.107283 0.960379 0.257221
162524.28125000 -10815.21191406 14105.57421875 -0.107283 0.960379 0.257221
162799.01562500 -11217.95996094 16019.25781250 -0.108143 0.975774 0.190183
162574.92187500 -11027.77734375 14919.58496094 -0.108143 0.975774 0.190183
163117.62500000 -11261.88085938 16423.37304688 -0.108143 0.975774 0.190183
161047.00000000 -11466.89550781 16475.34570313 0.052704 0.971952 0.229199
161605.21875000 -11372.29296875 16185.81347656 -0.086776 0.978984 0.184553
162035.90625000 -11556.25390625 17365.10546875 -0.086776 0.978984 0.184553
161293.20312500 -11739.17285156 17983.42773438 -0.086776 0.978984 0.184553
161325.56250000 -11372.77148438 16055.97656250 -0.086776 0.978984 0.184553
160137.78125000 -10593.61425781 12749.39160156 -0.057796 0.949132 0.309528
160619.60937500 -11396.71289063 16193.82421875 -0.044798 0.974663 0.219148
160487.26562500 -10835.36035156 13669.98925781 -0.044798 0.974663 0.219148
160568.68750000 -11471.25683594 16514.74609375 -0.044798 0.974663 0.219148
159659.48437500 -9882.32324219 10747.81640625 0.008789 0.942977 0.332742
159712.65625000 -10209.13085938 11670.61718750 0.008789 0.942977 0.332742
156946.39062500 -8990.04101563 7710.45361328 -0.084057 0.932631 0.350904
157809.48437500 -9507.73632813 9292.45605469 -0.084057 0.932631 0.350904
158780.10937500 -9253.56738281 8846.00097656 -0.084057 0.932631 0.350904
158472.60937500 -9259.71875000 8789.54199219 -0.084057 0.932631 0.350904
157118.17187500 -9250.12500000 8443.22265625 -0.084057 0.932631 0.350904
159765.20312500 -11531.29296875 16471.45898438 -0.094564 0.969598 0.225693
159752.12500000 -10855.12890625 13554.38867188 -0.094564 0.969598 0.225693
159151.75000000 -11119.97851563 14440.84570313 -0.094564 0.969598 0.225693
158260.54687500 -11621.46679688 16889.34960938 -0.008001 0.984148 0.177169
159663.82812500 -11585.07910156 16751.46484375 -0.008001 0.984148 0.177169
160296.48437500 -11722.28613281 17538.04882813 -0.008001 0.984148 0.177169
158302.90625000 -11659.96875000 17103.99414063 -0.008001 0.984148 0.177169
157651.56250000 -11781.50195313 17746.17773438 -0.008001 0.984148 0.177169
158917.01562500 -11296.70703125 15124.51757813 -0.008001 0.984148 0.177169
158708.34375000 -11736.42773438 17544.70312500 -0.008001 0.984148 0.177169
159622.59375000 -10736.89257813 13116.96289063 -0.047920 0.938978 0.340622
158874.39062500 -10141.25683594 11370.13867188 -0.047920 0.938978 0.340622
158603.84375000 -9976.35156250 10877.79882813 -0.047920 0.938978 0.340622
159257.54687500 -9971.98730469 10955.63769531 -0.047920 0.938978 0.340622
159435.25000000 -9629.71093750 10035.39746094 -0.047920 0.938978 0.340622
158230.64062500 -10320.81542969 11752.03027344 -0.157508 0.938202 0.308169
158552.03125000 -9882.25000000 10578.23144531 -0.157508 0.938202 0.308169
158977.67187500 -10946.86328125 13745.68847656 -0.045936 0.964656 0.259476
159213.18750000 -10949.49316406 13798.00390625 -0.045936 0.964656 0.259476
155887.34375000 -9449.39355469 8624.91992188 -0.101367 0.931228 0.350055
155050.75000000 -9236.50390625 7813.32519531 -0.101367 0.931228 0.350055
156141.39062500 -9126.76953125 7840.03808594 -0.101367 0.931228 0.350055
155311.60937500 -9115.20410156 7566.58447266 -0.101367 0.931228 0.350055
156634.78125000 -9320.77050781 8500.96289063 -0.101367 0.931228 0.350055
156722.98437500 -9515.93164063 9041.33984375 -0.095680 0.931200 0.351727
156447.48437500 -10194.57324219 10762.23535156 -0.095680 0.931200 0.351727
156792.67187500 -9206.52832031 8241.66992188 -0.095680 0.931200 0.351727
156858.73437500 -10456.18066406 11685.72070313 -0.070791 0.953742 0.292172
156890.00000000 -10705.29199219 12503.75488281 -0.065406 0.952869 0.296249
155586.15625000 -10723.98925781 12240.71484375 -0.073476 0.952608 0.295193
156472.85937500 -10650.02050781 12223.79296875 -0.073476 0.952608 0.295193
152251.81250000 -9300.50878906 7081.98828125 -0.115513 0.930896 0.346538
153284.10937500 -9850.47949219 8910.98828125 -0.115513 0.930896 0.346538
152822.70312500 -9213.14843750 7039.35253906 -0.115513 0.930896 0.346538
152922.34375000 -9626.73730469 8186.53027344 -0.115513 0.930896 0.346538
153966.34375000 -9029.91992188 6931.80859375 -0.115513 0.930896 0.346538
154891.59375000 -9619.14257813 8830.93945313 -0.058689 0.940325 0.335178
155278.51562500 -10190.82714844 10498.81640625 -0.058689 0.940325 0.335178
154761.60937500 -9276.11914063 7847.79687500 -0.058689 0.940325 0.335178
154642.14062500 -10387.55078125 10940.02246094 -0.058689 0.940325 0.335178
154918.32812500 -9687.45898438 9026.88671875 -0.058689 0.940325 0.335178
153891.29687500 -9789.77636719 9046.13574219 -0.173922 0.930832 0.321408
153594.23437500 -9868.68066406 9114.27050781 -0.173922 0.930832 0.321408
155525.25000000 -10515.16113281 11545.61328125 -0.081485 0.953242 0.291017
155337.60937500 -10364.82519531 11003.41503906 -0.081485 0.953242 0.291017
154200.40625000 -10722.83203125 11882.16406250 -0.060978 0.966930 0.247644
154656.14062500 -10793.70019531 12274.36328125 -0.060978 0.966930 0.247644
156055.62500000 -11779.90722656 17585.67773438 -0.031249 0.984925 0.170134
154398.23437500 -11342.41699219 14742.91503906 -0.031249 0.984925 0.170134
155004.73437500 -11764.40917969 17303.83593750 -0.031249 0.984925 0.170134
